571.06819,883.94208,418.7232
550.68674,688.89844,738.64058
42.55895,364.7764,645.69931
898.72937,837.20915,118.32225
486.88609,671.13088,148.19564
229.29144,471.77442,647.29077
405.80594,928.34782,700.03541
189.90898,530.35873,785.63725
213.13384,950.91266,879.61182
77.12078,550.21115,152.57785
942.52725,345.48655,358.68834
568.64849,411.46636,87.04461
995.05973,104.1903,482.81569
954.38276,321.29006,628.84245
623.94812,428.99173,684.75931
438.39439,662.89955,968.2312
455.87417,684.57507,269.30256
325.98304,952.86587,9.2295
1.98695,618.67373,545.09586
868.03578,383.09232,106.82337
632.54361,293.89607,754.97748
746.52744,715.89983,702.69147
532.64638,860.22984,438.19827
252.57792,201.27214,488.91421
739.41566,940.02832,816.07992
437.28809,201.0499,62.15597
476.93573,937.3034,960.08173
631.05611,733.05095,351.59641
273.52074,478.32653,466.58078
148.84927,338.16643,421.96107
349.23159,665.03303,650.51378
766.50292,200.35956,877.98894
423.71806,489.64705,593.46227
731.57764,987.41582,536.39088
955.132,410.85977,50.51141
193.2173,577.94272,800.51484
590.51422,65.31598,891.67004
444.53506,447.63233,671.24637
261.02749,85.80012,888.60702
680.40903,783.8544,598.41043
908.53374,720.98507,998.69257
649.00862,12.80454,506.81477
242.44009,831.83411,221.2855
571.47474,516.17677,223.34502
588.89884,651.69063,714.63514
397.42666,862.54578,327.7746
194.96557,336.28391,944.5789
264.80515,600.44967,101.56937
936.80109,18.55198,398.57229
484.849,753.50038,592.36289
34.84376,321.59637,75.36768
638.50077,140.29982,267.34218
276.19632,260.69033,971.67259
797.20473,793.03827,650.32046
9.74527,359.93921,389.22411
724.98171,92.87067,504.39009
823.39631,388.61483,914.49531
247.64073,868.38444,819.06332
779.88162,917.65678,158.64208
485.73492,790.05776,394.00499
611.37196,984.94523,513.84782
948.50185,678.79162,956.70352
655.29243,386.15129,788.51825
112.65311,884.10068,134.26378
981.84723,885.35857,582.09305
92.40469,495.3644,311.33047
958.5688,35.01489,354.07931
963.70098,423.48074,247.34548
9.84481,140.08957,247.8424
779.92612,738.81261,806.24269
69.03547,435.10021,515.81526
859.70895,750.59595,184.90003
621.37524,591.31149,587.16562
481.99377,211.99366,679.17455
39.60472,716.4666,4.05692
529.18508,758.79529,828.76785
330.18072,164.72691,956.90191
297.75598,352.50725,681.66066
653.1597,338.96901,357.00073
512.83962,421.5816,418.08313
229.1469,917.17169,363.7674
581.81592,611.70698,76.65157
578.48048,845.2386,473.26116
765.61078,217.56894,334.58848
217.83913,312.23179,208.62835
4.99737,92.34053,537.36212
844.29521,151.2879,547.59278
801.35654,560.55918,429.72847
878.87221,542.05014,108.84748
704.66935,302.9546,494.08905
10.25077,473.3403,488.08496
485.63736,893.14447,845.63299
982.9345,891.13703,266.08037
506.79806,552.9816,426.79935
222.09293,290.57906,554.61841
387.72424,864.13224,626.61633
765.22201,715.08841,629.55921
535.96586,651.01904,570.60249
878.78354,936.77028,89.49321
812.7821,88.62828,279.10223
470.82573,665.39205,418.75284
61.6929,926.28268,680.75147
381.69684,593.94712,785.29981
980.99956,912.14729,456.06432
131.63002,449.24832,76.77586
153.22843,861.28487,481.50122
895.56369,99.02656,247.75806
741.00927,427.69933,72.27283
259.53405,226.13886,355.35509
83.24157,205.85831,881.16841
43.13732,793.84662,603.26898
743.54569,425.30054,862.03898
488.87416,848.77301,226.9256
205.2278,691.87122,833.26186
855.19407,403.69319,66.79399
417.33452,918.02149,539.58358
723.74235,621.79196,50.79601
760.71425,32.49431,456.27083
816.81154,957.27001,623.58952
102.7472,395.06058,204.11142
964.88089,339.70309,827.25481
961.50313,524.49697,684.36215
364.19745,158.21691,691.29427
379.16952,853.1403,274.56706
725.58669,383.73634,295.44576
787.55182,630.7739,29.29802
601.68181,685.69963,877.08813
894.85491,566.25397,507.40054
158.39099,804.59123,70.3984
591.66147,350.0558,381.1109
133.56782,103.31199,222.43755
893.45705,457.58265,767.37347
754.85085,513.20042,265.45801
458.65312,908.01571,967.2303
952.4533,268.79386,507.5131
92.50151,356.73064,698.37763
460.04081,197.50266,262.03196
150.54511,743.7901,436.41169
355.35226,64.95675,587.55671
104.68294,596.65489,199.64917
733.5348,475.28237,907.95857
631.31372,319.13086,196.47778
736.37324,127.51707,988.44108
498.70986,581.99213,204.31425
339.2881,562.06018,349.93949
729.68222,212.41248,529.45214
650.30149,12.67307,491.49781
629.66508,336.07937,141.79836
991.49373,219.86419,484.20902
732.5644,948.96998,917.65124
723.71621,993.65841,83.35152
804.84473,422.17555,201.77308
745.61895,173.11273,263.45434
703.18399,958.5822,407.63762
547.44057,36.00566,55.47785
104.54498,692.3425,2.83355
672.61165,248.17918,797.34767
164.112,233.58493,845.36549
184.12426,397.07089,446.16064
789.09881,844.07211,138.39718
529.63415,16.97283,180.66582
583.07128,792.05314,120.5231
12.39432,231.01537,192.43637
856.60141,982.56664,383.49212
933.12755,938.30235,819.81413
588.95006,240.14972,170.16371
859.69896,239.44657,112.35634
138.24998,889.74832,355.23147
548.45949,825.27349,964.11405
708.17521,489.80334,777.20785
944.3455,349.65797,102.18813
483.27748,656.31676,563.10165
737.32462,718.03953,773.21515
886.80004,158.10208,944.98008
371.00365,187.74031,209.68589
837.67954,928.04519,2.16786
290.13793,636.53326,822.16606
908.57941,409.46291,139.52298
519.69349,548.9478,502.43656
854.67019,213.21083,927.96985
353.95568,934.31791,242.51531
596.08955,888.91679,266.97856
39.77792,796.87267,306.19785
537.11724,27.20404,864.99927
736.74773,327.32752,866.33492
653.8131,917.78858,305.70318
830.85372,906.9247,785.90149
50.39791,363.99776,941.18798
679.58074,966.0376,962.88004
973.76702,739.01464,150.16798
978.39567,936.11779,673.47699
29.15418,985.04372,334.27471
561.71025,832.36668,445.2475
703.07141,235.10958,283.88057
165.46653,156.70443,705.43516
218.69899,504.1089,912.35592
20.92957,487.14014,789.47784
343.16186,148.75122,694.19616
201.27749,201.00015,74.83709
50.76835,523.50299,727.62161
230.41946,270.07483,630.59667
508.26465,589.43426,665.28431
188.33042,822.55779,307.90999
791.72203,950.83336,183.09958
281.29477,905.83542,104.34693
46.8767,179.75273,999.76789
664.71989,819.44862,984.8732
588.24446,455.80413,400.21886
957.4755,813.6876,338.4785
375.34925,504.88733,964.16037
857.31752,881.75729,615.48455
455.69573,159.64099,945.18665
584.76868,794.8657,502.48186
535.42495,70.63222,296.67387
88.63217,209.36785,65.62872
476.35335,637.59304,309.94842
685.40509,767.56502,725.83298
737.03849,772.73936,364.76043
532.96195,193.17085,332.346
460.61692,488.66311,641.21267
251.77101,668.62246,519.26469
184.03957,117.21555,86.35995
271.52315,679.66117,634.45534
842.75138,109.08365,827.04352
619.55592,791.84878,255.83484
979.10686,946.1669,139.04349
618.31112,447.07739,806.78282
463.66875,411.5316,988.14383
23.55852,797.75624,379.29094
672.5877,998.95532,8.13793
296.18409,472.71358,206.38445
85.64836,712.45306,392.9988
114.55664,84.49435,999.31516
911.11846,382.86523,907.29517
380.83235,102.43106,332.12732
565.91221,891.21043,635.16788
931.02422,253.70259,466.29757
617.39573,918.50415,125.34103
740.47918,159.73434,30.31207
626.17245,633.25392,941.62567
356.25916,147.37645,801.04326
886.50903,458.91452,840.83439
575.40398,487.9881,545.56054
547.21978,175.50986,911.83922
443.3831,500.86397,616.34118
0.68025,409.42563,86.16732
33.76876,913.37158,406.76384
537.20867,63.81037,426.14655
557.61582,414.15647,711.3597
19.68971,134.84918,403.14914
263.26627,643.85329,33.12834
952.27512,704.08101,508.2871
302.21431,193.99827,309.25413
290.89324,44.56895,229.67749
171.12869,861.14038,667.76354
878.4033,52.8396,655.58996
429.85473,646.25758,435.21817
15.59023,275.19907,45.18746
17.10494,961.91591,892.20729
919.36204,799.94738,907.34633
448.46106,536.12634,563.48823
978.27235,63.43655,29.59659
648.83449,259.48204,974.49356
286.37531,779.84916,921.83881
371.82316,329.64393,973.10395
689.69053,77.65204,239.78185
49.16742,790.48957,758.00819
212.8774,88.74125,284.25953
570.38415,268.89712,237.13526
349.79876,279.97683,65.32204
318.21711,874.13954,75.69362
897.35069,887.91031,53.72697
209.27853,739.72392,748.76713
260.46177,364.86743,981.12978
494.37339,816.90089,223.2098
656.1756,149.11788,902.54552
482.0505,679.41448,78.04646
84.84171,717.53306,409.22899
841.36349,563.10544,844.2146
861.25346,614.33472,491.31789
352.48802,539.97598,380.10756
222.47857,214.96,239.43547
250.96673,669.80622,455.99341
101.92992,373.5694,126.02358
180.79495,968.69056,184.65989
586.08244,564.61661,988.02178
229.58067,259.62778,895.69681
884.56583,233.85245,409.48757
34.26153,94.83899,782.43336
403.2409,865.96424,115.39958
86.2597,79.54928,58.08538
755.59112,88.47842,243.78834
696.57497,301.52156,100.24037
955.4941,970.65236,361.16359
493.51161,640.41935,753.54092
900.46472,246.6119,999.52973
159.22688,208.03532,639.47123
744.15151,192.98862,522.69889
633.13947,382.32268,41.87937
358.88512,160.82625,718.72987
202.0041,819.19621,169.62102
817.85815,956.57777,244.46717
989.9381,49.33224,690.16591
586.48238,391.20838,132.48175
534.90206,200.71971,396.43331
440.77921,74.48018,716.26749
794.80742,832.48992,705.32671
875.13452,928.82193,883.78983
973.28252,632.80645,605.95122
335.84604,452.45964,996.49353
867.14865,800.60304,85.5813
188.82258,298.74559,298.13913
142.71188,24.33877,638.39986
988.82306,351.16459,263.08726
697.05726,426.65767,195.72241
583.16085,666.32849,958.16224
284.51485,81.32818,598.30998
578.73984,73.38294,766.68986
203.58213,489.31251,266.4871
172.17071,984.46693,756.36065
730.98816,856.20924,908.83914
168.12663,272.64421,987.4018
523.3717,760.61165,835.51626
193.54558,747.41223,586.81485
729.0217,948.73029,275.10525
721.62918,499.48413,886.97513
731.35979,755.24868,867.55377
518.25497,689.47152,781.21404
577.79325,562.81112,552.43124
406.33543,87.09089,609.06563
239.32258,190.92048,791.44899
686.5249,612.8779,318.90127
446.31106,143.94289,126.55877
613.27452,998.62661,260.92315
345.75634,109.55376,269.42545
843.79589,757.50593,196.33226
964.35743,776.96004,790.41556
87.16778,193.01305,59.611
921.65303,291.57444,231.89759
862.3455,980.45952,258.27755
458.54327,347.98051,296.5319
442.21781,694.81567,106.99672
812.71174,754.62499,228.15279
344.80391,175.67548,854.1606
299.29466,797.21419,645.11711
947.13814,409.09409,464.70951
620.20213,820.21541,491.98715
584.98392,299.81511,513.23049
656.22062,484.25899,518.08357
379.63951,678.47373,429.05834
718.12445,962.01396,732.24124
665.01529,591.13007,121.32168
499.61373,557.21832,321.93321
358.23387,239.3142,713.73932
614.23654,824.90578,556.38594
165.74081,749.42994,359.09441
615.90348,439.37978,751.67566
682.63398,580.6273,804.05736
847.33784,642.34247,804.16976
155.01457,480.46255,562.84612
495.54808,491.87427,96.86674
660.84708,833.98977,751.08765
601.66808,965.87317,576.67175
696.21946,465.94947,266.84448
161.08216,884.34629,628.17805
559.44954,557.72875,683.51612
961.48265,483.56541,442.43765
737.24609,652.55147,493.27588
876.51014,18.13898,232.96317
725.42724,724.39112,550.68933
991.58313,187.85283,777.45961
205.31443,209.7306,659.57622
188.41458,23.7452,384.80528
133.09321,398.23552,92.68321
756.96694,544.73405,938.72589
35.93524,340.32697,203.0647
637.12384,802.19758,763.35648
366.8374,873.96126,678.54416
891.59307,833.51184,121.6297
794.62439,447.37686,60.85218
651.27005,609.54158,851.55291
746.55595,561.9302,110.87262
58.35125,548.40608,817.48432
648.49239,640.89823,32.73069
550.18957,624.98606,11.00258
999.00404,854.50481,496.9327
476.04083,633.90807,641.57531
232.00559,890.80696,830.20999
184.97637,647.93527,157.71575
922.28854,404.70028,122.14049
832.19359,805.30731,191.9953
614.56652,66.11003,138.52743
357.52881,680.39493,685.6444
433.29217,706.06832,661.22149
874.88934,739.50146,631.00822
653.3189,140.34668,717.98825
149.23436,644.61914,812.04056
486.8662,508.05026,752.49197
444.56532,232.97273,786.46479
187.02127,961.88884,602.62396
8.27766,550.41754,813.12884
843.84337,995.90493,541.26707
528.356,2.20217,626.05663
963.56878,130.59045,499.88471
759.34521,195.15463,89.81228
732.64742,950.37194,23.53071
400.63547,557.09845,466.71394
946.19168,290.14839,684.27656
468.20521,230.74168,249.99762
515.50873,682.64659,326.91284
309.18339,503.33875,543.03537
479.23588,694.05513,103.96602
307.63781,342.46751,535.81371
486.03446,858.04009,221.73152
542.69379,182.73158,463.35097
551.48447,856.42952,820.17972
237.29148,593.79681,807.47174
1.79703,328.13689,697.04762
88.20466,26.80856,16.25236
837.37086,278.42701,445.00997
753.13142,535.63902,873.16407
816.95174,607.04268,439.89805
361.29558,659.20288,884.7715
835.65943,424.74396,894.21478
710.5914,974.51071,351.89929
649.42098,478.40988,351.31439
811.09818,476.44574,323.05522
156.67636,508.49088,165.17582
337.5259,10.30593,966.17728
999.72041,578.57328,957.29553
325.09994,955.30837,857.16321
750.73005,331.51278,430.32772
835.77257,198.00966,573.79232
911.20173,670.05455,314.91894
799.1784,824.81583,36.40304
773.85986,367.26171,662.40656
249.53478,459.04812,343.94976
853.74651,281.12927,170.58188
894.46446,956.66939,179.48405
726.09837,140.04986,863.80442
518.19334,687.21719,975.34393
427.56237,733.60105,533.43626
902.73171,307.43114,726.56419
537.76937,479.83183,514.97449
59.83664,156.54285,809.97417
148.85889,170.35407,878.25043
928.18712,648.0485,485.41409
979.38156,592.06665,321.77253
752.57295,14.91683,614.26354
847.60881,375.30887,400.92629
443.1553,387.69248,590.08619
725.8318,132.38367,117.02193
325.31131,415.41213,246.78374
618.32039,827.65253,81.53441
880.82482,898.61085,545.10928
423.82752,903.64304,439.01385
296.34201,681.65808,971.51813
650.7018,496.284,812.81294
990.01606,868.94685,382.71036
894.69997,792.50862,637.28079
648.27302,210.07884,665.47505
750.45598,578.50012,71.62249
2.57182,892.71855,273.4904
988.71795,94.81888,360.00108
882.98597,818.95616,241.51096
493.1968,516.36824,91.89682
548.61175,343.66187,83.97972
159.11225,527.84923,468.84271
680.38469,763.53768,594.34316
271.51192,255.25995,575.09984
951.65581,753.37503,289.73824
600.485,893.43213,287.39404
212.13986,333.78966,483.73887
471.97573,557.78803,57.51654
121.62996,84.99375,461.18892
261.53643,786.66225,399.7827
985.57631,967.88935,794.1031
318.10962,123.70236,388.84919
626.38136,630.20508,726.66305
798.51975,36.94407,390.05044
43.93098,193.40219,825.56902
807.98206,647.89131,608.87967
302.04302,20.25887,735.66239
889.85052,49.11881,716.51335
253.71843,935.83756,848.80159
491.06766,550.0277,839.7786
298.86053,953.39739,862.36718
305.98,170.98696,119.41592
698.32129,489.73897,886.50859
503.54222,436.29416,927.4714
771.07643,310.98931,504.31994
658.95662,160.21014,821.33465
169.84825,828.92329,231.04317
758.00013,139.10578,41.45108
560.64941,536.19985,381.56564
619.27226,955.4273,166.46764
365.0754,740.47136,355.15946
89.74317,736.85096,147.69587
351.1425,340.69896,723.58149
250.5983,974.82002,511.26801
571.50102,112.1469,822.25475
105.18529,839.21495,874.47569
543.20283,769.43488,532.06685
456.53464,514.29837,766.53331
303.39472,726.51461,394.62708
719.23471,517.1862,826.29898
777.59782,670.41574,384.45911
389.167,996.06246,178.25398
469.42387,947.21181,150.32919
510.30953,858.82647,819.31926
427.01099,208.53504,74.0594
418.84619,351.6239,960.30799
502.43942,635.58285,711.58515
803.42706,95.48564,572.62184
224.99046,66.06788,637.32636
546.82051,640.59995,320.20672
627.01819,568.25216,571.8785
131.01953,183.89644,500.22622
466.38642,716.97576,68.94806
54.12165,193.71523,52.53397
105.9299,684.64917,849.65385
42.39962,25.31343,641.62923
429.91991,225.01228,628.99785
749.3948,125.70654,718.38041
186.08009,306.51242,724.96519
505.71501,499.85435,189.63508
549.27498,75.38036,459.28968
565.84662,859.67361,462.74315
322.75871,166.43552,48.32718
112.07069,868.14748,134.24407
794.72831,987.34885,947.10306
17.64691,860.92792,211.26752
877.95448,970.96051,614.73575
425.57793,297.00815,806.20246
45.24027,177.32028,114.28081
742.47906,330.20147,708.00124
460.48257,982.41455,732.36603
904.72753,804.2873,104.66889
308.72906,223.95292,234.63751
703.99645,470.30949,816.71049
24.68772,817.50488,966.80511
969.52178,557.47082,385.95555
752.24213,385.53594,761.01003
179.01138,975.7586,131.53575
134.13136,833.01134,307.54042
28.48643,306.73177,987.1523
166.12192,100.44886,897.52438
761.74156,424.87045,640.93052
855.66517,259.44882,520.50658
83.5968,432.07961,860.91681
251.18848,29.6622,271.33369
668.78857,604.21634,449.6733
982.80729,438.18878,559.21202
444.97135,346.20406,528.14167
293.01979,689.58893,177.51186
814.07022,826.5071,706.93257
742.82816,281.21237,457.96095
445.32032,169.00176,195.63659
398.32073,791.64916,553.78444
86.93385,46.73507,594.34154
935.53385,404.25971,771.20514
709.58244,435.45735,280.62018
872.57451,393.38502,247.74427
820.99201,97.28665,118.46624
518.49292,528.74887,909.94208
640.36932,967.5807,697.97626
425.45127,299.9158,495.32441
910.41198,609.11712,976.61361
308.49389,342.15237,451.46975
273.37088,687.78262,233.0821
577.75112,853.77116,390.42192
688.71987,454.24638,231.52144
350.8349,522.62969,803.32721
610.87458,487.92233,449.43908
523.44209,310.08317,755.20142
312.53498,157.58549,837.74048
40.95194,512.78649,847.17505
469.4874,238.73608,770.0873
996.39128,646.28769,945.3718
742.72487,89.88057,718.36772
741.50468,130.84108,260.1783
215.2602,556.92061,656.24813
177.96407,179.2539,52.6895
704.33497,917.70873,456.12917
585.69455,254.70321,226.88485
733.31265,868.04095,590.82871
720.02367,551.94237,481.2938
980.37543,750.7898,681.53315
468.66638,877.98019,512.89445
288.85326,627.21262,523.22607
858.80502,452.70359,243.33125
661.5822,413.15478,366.22936
328.56399,147.53134,338.32028
879.07205,50.73098,509.28256
637.58118,321.27473,582.46604
3.91246,496.21081,925.52234
680.95695,206.41513,780.21448
714.57761,9.65454,763.63383
84.14897,450.18704,164.45477
659.55795,923.35503,121.67372
204.89124,461.77025,274.00171
884.58826,508.7668,515.31695
174.48571,143.16181,76.22279
513.58378,419.1948,936.16832
295.95411,829.11694,199.66124
180.42946,968.0636,570.63114
36.98467,528.60547,484.54717
447.75656,198.51084,837.57529
791.40925,999.367,339.46203
605.37706,530.05497,837.94411
747.60373,75.39699,729.26504
558.15056,964.39657,306.11016
74.10974,625.19358,105.48377
39.89088,206.49129,875.29394
373.99275,756.91017,408.53745
317.2527,714.88795,274.10486
169.64666,240.52018,120.52869
621.80387,341.4534,283.45891
757.31912,461.92174,338.41428
634.51229,453.61444,910.28782
673.79404,21.58582,482.69168
423.54614,318.75775,395.36837
11.19277,292.50184,560.84453
333.27738,122.15158,163.60053
41.84665,609.87571,884.47683
41.00344,103.8156,36.60713
506.11409,593.56952,128.16631
186.72159,273.1698,250.80081
223.09172,327.4366,465.56308
396.35208,633.51287,589.36977
343.97096,193.55075,444.04204
5.38042,189.9843,938.36268
317.39365,15.07875,671.04038
168.77986,49.4426,334.91053
978.90096,58.24159,877.91965
73.86194,73.65779,472.69641
87.85373,108.51408,819.17075
917.79371,62.43459,924.01948
164.84396,812.84432,662.49927
753.17975,380.66987,73.61832
700.81698,287.82845,355.69683
547.19148,50.14746,396.49204
231.51057,122.27084,717.55949
832.4873,498.8003,725.64676
521.67101,776.67393,50.0368
789.69194,921.64393,257.22569
126.7631,851.78145,365.83353
261.07743,133.74613,396.19959
645.01228,402.02175,38.02708
32.11502,860.68637,177.32976
291.05249,14.72291,295.28671
2.33849,443.75515,642.6314
647.90987,719.69146,406.20399
475.64373,955.54664,317.20824
553.99698,801.99134,287.02263
802.15687,501.96761,995.55638
705.01486,980.67939,60.31833
963.19221,985.28387,942.49857
239.12327,605.91031,425.55292
492.96112,184.52557,666.71815
296.67987,639.07595,497.45303
808.57826,953.86456,858.60712
217.41295,428.69929,430.91552
275.62709,938.796,693.85448
170.43683,312.92491,516.42977
620.06467,143.22549,882.65525
360.25197,946.46092,908.29852
17.92457,538.60025,340.88024
833.7717,297.82817,10.99185
378.57567,657.87037,18.96024
549.71202,544.05179,188.13223
15.08541,849.23641,231.56971
64.23979,175.74846,801.01148
777.15273,604.62549,870.02783
421.09575,546.66416,800.5065
365.4296,344.14573,884.4925
410.70649,340.91702,26.34095
776.1802,63.13285,690.56108
51.20244,111.30253,145.54835
486.8731,862.4201,764.42389
704.62074,647.10706,224.23943
958.3642,517.39692,162.4937
542.71146,743.42494,134.01367
779.77087,600.23286,445.13463
391.03735,402.46523,212.46336
216.08593,945.79339,101.45195
473.177,114.12882,572.21797
91.80839,435.77905,888.03954
214.71308,50.29272,675.14674
696.82508,434.4755,843.91015
457.21061,915.17996,157.31782
381.41278,102.05393,990.87892
271.40682,564.0824,288.09531
613.10154,554.42349,182.68758
797.891,635.14095,649.53496
329.51354,260.53778,877.87446
705.46224,896.05242,99.39314
242.64845,122.48509,659.25708
317.67408,387.83761,184.42943
494.03745,851.94292,933.88142
818.73074,791.67124,192.17305
834.82888,819.44914,523.84307
812.15667,958.7681,416.5623
188.34373,372.58582,595.38473
791.90656,277.55723,547.96272
944.60157,320.8905,712.77854
245.91911,335.43521,469.38611
466.261,765.18586,136.33972
641.40535,920.11639,279.99969
934.79703,207.98382,605.40549
453.95002,183.26387,517.92072
850.15174,908.62167,538.82317
946.52224,735.61976,340.31899
892.17167,671.12661,228.3955
857.72786,672.44838,159.02843
883.49641,40.49945,309.71017
738.17841,495.97343,69.9851
111.68274,251.28292,413.55094
430.64892,684.48481,245.06786
119.89852,685.90979,570.3683
785.04044,435.05023,929.91394
223.00417,662.30913,888.4262
737.537,984.30502,173.54188
749.88949,594.60131,270.16929
964.41241,32.50332,602.20563
510.04074,850.98594,853.86128
221.7998,877.587,456.03653
329.16985,665.81352,775.32906
42.6768,402.21473,604.61984
894.34596,666.92963,995.34635
424.76494,230.6521,983.66106
204.86918,379.85809,122.54518
773.2195,336.51313,166.58962
121.29204,711.33344,666.48627
465.86247,311.40923,317.56919
969.23216,909.55985,920.24051
710.11401,881.85816,619.98098
932.80085,336.0025,781.02778
30.06094,334.15159,341.98266
716.08901,664.42144,866.72693
717.4386,666.08626,50.39426
438.99571,501.74821,218.90915
24.18315,889.5056,343.04729
87.77045,87.86446,852.85699
318.82512,588.78972,781.0817
246.17675,300.31199,299.13393
118.60848,876.16344,224.45362
411.39589,291.72513,116.8787
985.2084,582.07444,291.36639
462.8419,778.72725,294.54534
329.02167,576.16279,109.78782
282.81005,515.07569,421.32002
566.07679,904.6698,708.87987
331.62335,233.11697,649.85549
450.33684,652.58665,204.47459
493.49922,814.36583,48.82207
848.89381,224.77516,453.45862
572.26766,323.26048,328.0371
85.18685,314.67693,35.05923
578.59004,625.1386,372.92364
152.22855,876.6633,293.76735
624.71004,19.68342,767.39644
64.75789,678.47826,851.37783
431.79817,69.84465,654.48409
614.18805,947.64313,848.68791
749.21218,756.83024,922.07768
849.85117,745.07356,89.60115
358.11679,488.81418,637.28592
686.63408,75.37411,220.68904
118.9817,338.24865,483.93683
599.60039,406.0354,516.92615
616.898,461.79259,377.28579
674.56644,381.54592,155.57146
713.7685,405.97829,883.84959
13.70735,545.64592,121.73727
430.44436,342.84163,967.79841
82.45986,302.47339,22.8869
199.51828,474.09663,946.31556
761.17632,596.49383,642.73336
101.3193,566.72565,65.62636
230.84135,505.6731,904.6899
617.38996,680.01633,788.06776
153.60889,267.31,541.26154
568.83255,290.31865,802.53391
524.67062,144.70128,917.30717
680.65164,637.37895,716.45839
219.01247,39.34028,701.31923
466.96518,988.74455,448.16996
107.02569,590.70726,894.39658
907.94647,200.48088,827.66222
917.78413,366.69733,464.66445
161.2103,670.26593,40.3786
3.51764,791.05759,859.47251
434.66158,100.95044,723.74768
933.52838,36.23264,655.57077
622.48164,20.37059,35.24757
519.45138,146.36766,322.37112
65.5859,122.80853,16.44603
684.2253,181.56991,600.81314
225.77021,553.60942,421.88357
284.27964,429.38572,33.57144
965.95048,420.25275,252.67509
85.12494,159.7857,546.84725
757.68179,555.48269,705.27203
896.67266,444.17383,167.95593
154.9566,326.97302,415.54509
27.94444,855.24766,416.91964
983.26374,596.08161,189.35869
833.31502,522.81293,481.28609
980.12583,933.51673,975.21167
830.93471,393.28729,633.08253
406.47525,604.05925,16.39382
212.41381,46.89584,934.59625
802.28304,444.8673,986.86418
786.11185,558.70689,884.49719
584.25855,930.57605,717.93762
280.42159,336.29884,49.74027
327.62558,926.61938,153.06136
270.28767,485.85469,882.84548
705.61676,30.89787,865.51045
549.66775,293.49113,191.39918
587.63402,392.76363,736.75489
701.80693,515.52129,48.34091
945.89051,510.19985,172.10634
278.29905,270.56679,898.82918
953.11346,128.40952,115.35712
110.71338,348.9592,723.16923
859.26904,905.52267,417.64528
936.15493,52.11385,538.84764
369.15353,182.9503,399.07387
48.22349,231.02062,658.72203
483.9116,460.70393,643.35144
214.7276,949.25286,308.60251
823.32566,981.48116,602.99585
212.9432,139.44318,696.36424
308.96591,672.92649,126.84158
870.93605,112.82515,833.54671
439.84306,932.19356,913.8125
449.65382,974.79198,702.56536
245.14593,101.69735,52.17678
580.93934,647.03919,378.11665
698.50428,271.3356,684.5154
206.69021,280.53064,778.23802
528.59911,175.85087,368.29117
289.5366,270.79097,674.5542
45.14816,284.4911,445.28337
451.97438,884.29105,220.93632
866.48565,175.04121,665.77431
101.3408,884.5477,65.85093
474.37649,301.82441,647.7887
764.48815,477.43092,843.85167
14.00996,504.06104,494.71196
981.6566,885.68872,53.40229
443.26443,843.92862,329.80031
695.33924,479.81863,59.90965
169.22049,136.1278,792.17502
64.97243,109.93594,401.40354
886.25224,142.05236,828.65676
848.54803,443.60464,664.13711
431.23516,368.47215,117.49229
797.56369,37.13317,854.12772
590.20452,474.43893,193.02986
112.65877,494.02179,559.61558
413.9341,74.21935,682.05491
572.44715,850.7064,968.87028
456.23924,124.35559,985.07673
997.50764,537.55099,663.58081
578.50319,226.12763,756.43572
701.80536,210.60776,209.80283
188.38448,461.41315,946.67017
736.79677,815.47452,176.29495
697.79983,883.93932,342.49615
46.60378,661.0265,359.89592
599.19109,444.37464,999.57337
863.8178,901.4674,836.82423
953.83383,119.61101,7.68942
666.15464,321.44691,71.675
469.38599,702.76988,434.61524
392.88895,998.57744,453.09435
339.84489,95.75434,992.011
888.77866,345.50888,503.14243
693.79986,625.51437,32.06252
595.49885,65.53306,800.58864
31.62519,732.57205,374.02489
878.75138,815.54573,239.45488
856.42069,817.00165,420.64395
812.36718,273.85713,717.08592
210.39023,232.24449,349.29574
344.20701,229.02203,883.89972
410.6115,34.57969,444.04728
642.81806,111.05114,793.61318
826.2385,828.92832,213.78642
633.36861,786.75678,341.4824
927.8879,675.2535,322.34321
608.94294,924.88817,264.34517
124.75528,129.58765,130.40627
180.70237,620.9082,805.81664
398.27142,875.20592,605.55205
745.03204,368.3826,595.54722
878.294,417.84428,421.15088
723.05867,159.24968,783.77464
922.41929,254.47089,399.52703
946.26844,455.98261,853.5047
183.67055,734.28752,730.40501
44.6201,745.61929,273.62204
34.51158,206.52083,6.46763
71.35633,351.62987,892.27149
386.69335,984.06144,922.57056
889.23292,949.68394,732.30755
474.12457,342.94156,347.55634
341.52439,113.47643,707.93776
662.61781,848.08656,368.94393
221.30127,902.91481,376.9929
447.10772,920.2537,832.70416
194.76762,84.16023,101.01552
140.9425,358.97436,167.96407
152.16629,790.82352,205.13208
430.65531,374.8751,991.77675
779.45991,131.342,769.54337
143.15591,589.84315,661.73114
846.61912,869.19437,385.49627
360.41401,4.5219,971.85557
190.79187,588.89827,33.18517
698.52408,877.74806,667.06734
441.60121,805.21321,430.18342
444.18381,369.48576,105.44838
624.6607,567.32935,957.54611
722.75979,885.67475,133.83103
945.35272,333.73005,762.98325
913.00777,820.74701,927.36976
562.17667,18.86947,89.68678
752.91934,667.62554,180.45771
233.07872,590.30776,729.84419
644.28962,908.26701,668.56517
996.39563,108.39166,132.18657
549.95269,874.00014,158.81039
550.29103,287.71159,773.55755
399.33728,566.71166,462.74537
613.78951,285.29845,480.53481
990.90092,765.33249,563.33792
30.67343,155.57619,789.05007
665.19226,179.02997,54.93968
774.90346,997.97869,678.72662
577.32074,557.35468,701.15468
469.33178,588.24382,245.13181
269.01596,20.89329,127.59289
644.77238,86.63685,758.14846
38.77445,59.88645,183.03992
896.88039,364.696,81.25328
46.18427,862.60837,568.82607
678.85437,879.83525,399.96465
251.46993,712.68867,627.33162
822.31309,23.42791,404.86965
470.13254,143.19185,461.80906
357.30298,173.12666,627.95228
469.47608,498.96693,619.74502
333.16005,74.3796,314.51711
778.53121,879.68598,703.77284
561.01525,778.04548,863.24779
413.14244,230.0298,797.11394
169.46695,767.8176,919.85634
819.25061,408.53283,785.40981
281.70381,35.64755,112.71848
707.07134,985.48627,801.64235
855.25373,124.04996,58.43624
368.60649,164.88273,228.53134
729.19574,943.61622,898.57763
711.47387,336.22474,385.22137
493.59182,882.97897,319.75817
227.35194,4.9286,719.1106
691.04854,520.59657,349.04141
691.55971,155.47429,973.68989
889.1091,179.75576,347.06626
301.51737,522.20141,370.03039
396.5466,177.89534,798.92605
5.77073,582.67638,572.58094
747.17385,839.54223,207.42497
784.13332,477.65512,60.65963
361.66763,630.46603,160.26185
904.77001,847.28915,63.50682
974.43779,639.55271,982.60681
777.92634,117.21357,131.57752
328.3828,586.64719,190.17415
330.00706,361.80143,241.10793
738.30513,803.21305,642.63507
492.37506,593.95794,174.31658
267.37041,188.14288,52.42238
901.60067,710.11538,947.97372
687.66412,685.06665,875.0598
974.13432,649.12728,494.02632
17.27712,345.16297,4.23704
219.38901,255.56769,1001.53985
523.33672,886.12965,226.68075
896.40287,922.62101,525.28094
281.27604,589.44032,577.59558
462.05271,347.94632,211.21565
518.43866,257.72234,920.26847
207.9501,937.79859,245.11479
999.87309,276.07445,809.4144
642.59155,538.14404,641.85996
