571.06819 883.94208 416.72320
550.68674 688.89844 736.64058
42.55895 364.77640 643.69931
898.72937 837.20915 116.32225
486.88609 671.13088 146.19564
229.29144 471.77442 645.29077
405.80594 928.34782 698.03541
189.90898 530.35873 783.63725
213.13384 950.91266 877.61182
77.12078 550.21115 150.57785
942.52725 345.48655 356.68834
568.64849 411.46636 85.04461
995.05973 104.19030 480.81569
954.38276 321.29006 626.84245
623.94812 428.99173 682.75931
438.39439 662.89955 966.23120
455.87417 684.57507 267.30256
325.98304 952.86587 7.22950
1.98695 618.67373 543.09586
868.03578 383.09232 104.82337
632.54361 293.89607 752.97748
746.52744 715.89983 700.69147
532.64638 860.22984 436.19827
252.57792 201.27214 486.91421
739.41566 940.02832 814.07992
437.28809 201.04990 60.15597
476.93573 937.30340 958.08173
631.05611 733.05095 349.59641
273.52074 478.32653 464.58078
148.84927 338.16643 419.96107
349.23159 665.03303 648.51378
766.50292 200.35956 875.98894
423.71806 489.64705 591.46227
731.57764 987.41582 534.39088
955.13200 410.85977 48.51141
193.21730 577.94272 798.51484
590.51422 65.31598 889.67004
444.53506 447.63233 669.24637
261.02749 85.80012 886.60702
680.40903 783.85440 596.41043
908.53374 720.98507 996.69257
649.00862 12.80454 504.81477
242.44009 831.83411 219.28550
571.47474 516.17677 221.34502
588.89884 651.69063 712.63514
397.42666 862.54578 325.77460
194.96557 336.28391 942.57890
264.80515 600.44967 99.56937
936.80109 18.55198 396.57229
484.84900 753.50038 590.36289
34.84376 321.59637 73.36768
638.50077 140.29982 265.34218
276.19632 260.69033 969.67259
797.20473 793.03827 648.32046
9.74527 359.93921 387.22411
724.98171 92.87067 502.39009
823.39631 388.61483 912.49531
247.64073 868.38444 817.06332
779.88162 917.65678 156.64208
485.73492 790.05776 392.00499
611.37196 984.94523 511.84782
948.50185 678.79162 954.70352
655.29243 386.15129 786.51825
112.65311 884.10068 132.26378
981.84723 885.35857 580.09305
92.40469 495.36440 309.33047
958.56880 35.01489 352.07931
963.70098 423.48074 245.34548
9.84481 140.08957 245.84240
779.92612 738.81261 804.24269
69.03547 435.10021 513.81526
859.70895 750.59595 182.90003
621.37524 591.31149 585.16562
481.99377 211.99366 677.17455
39.60472 716.46660 2.05692
529.18508 758.79529 826.76785
330.18072 164.72691 954.90191
297.75598 352.50725 679.66066
653.15970 338.96901 355.00073
512.83962 421.58160 416.08313
229.14690 917.17169 361.76740
581.81592 611.70698 74.65157
578.48048 845.23860 471.26116
765.61078 217.56894 332.58848
217.83913 312.23179 206.62835
4.99737 92.34053 535.36212
844.29521 151.28790 545.59278
801.35654 560.55918 427.72847
878.87221 542.05014 106.84748
704.66935 302.95460 492.08905
10.25077 473.34030 486.08496
485.63736 893.14447 843.63299
982.93450 891.13703 264.08037
506.79806 552.98160 424.79935
222.09293 290.57906 552.61841
387.72424 864.13224 624.61633
765.22201 715.08841 627.55921
535.96586 651.01904 568.60249
878.78354 936.77028 87.49321
812.78210 88.62828 277.10223
470.82573 665.39205 416.75284
61.69290 926.28268 678.75147
381.69684 593.94712 783.29981
980.99956 912.14729 454.06432
131.63002 449.24832 74.77586
153.22843 861.28487 479.50122
895.56369 99.02656 245.75806
741.00927 427.69933 70.27283
259.53405 226.13886 353.35509
83.24157 205.85831 879.16841
43.13732 793.84662 601.26898
743.54569 425.30054 860.03898
488.87416 848.77301 224.92560
205.22780 691.87122 831.26186
855.19407 403.69319 64.79399
417.33452 918.02149 537.58358
723.74235 621.79196 48.79601
760.71425 32.49431 454.27083
816.81154 957.27001 621.58952
102.74720 395.06058 202.11142
964.88089 339.70309 825.25481
961.50313 524.49697 682.36215
364.19745 158.21691 689.29427
379.16952 853.14030 272.56706
725.58669 383.73634 293.44576
787.55182 630.77390 27.29802
601.68181 685.69963 875.08813
894.85491 566.25397 505.40054
158.39099 804.59123 68.39840
591.66147 350.05580 379.11090
133.56782 103.31199 220.43755
893.45705 457.58265 765.37347
754.85085 513.20042 263.45801
458.65312 908.01571 965.23030
952.45330 268.79386 505.51310
92.50151 356.73064 696.37763
460.04081 197.50266 260.03196
150.54511 743.79010 434.41169
355.35226 64.95675 585.55671
104.68294 596.65489 197.64917
733.53480 475.28237 905.95857
631.31372 319.13086 194.47778
736.37324 127.51707 986.44108
498.70986 581.99213 202.31425
339.28810 562.06018 347.93949
729.68222 212.41248 527.45214
650.30149 12.67307 489.49781
629.66508 336.07937 139.79836
991.49373 219.86419 482.20902
732.56440 948.96998 915.65124
723.71621 993.65841 81.35152
804.84473 422.17555 199.77308
745.61895 173.11273 261.45434
703.18399 958.58220 405.63762
547.44057 36.00566 53.47785
104.54498 692.34250 0.83355
672.61165 248.17918 795.34767
164.11200 233.58493 843.36549
184.12426 397.07089 444.16064
789.09881 844.07211 136.39718
529.63415 16.97283 178.66582
583.07128 792.05314 118.52310
12.39432 231.01537 190.43637
856.60141 982.56664 381.49212
933.12755 938.30235 817.81413
588.95006 240.14972 168.16371
859.69896 239.44657 110.35634
138.24998 889.74832 353.23147
548.45949 825.27349 962.11405
708.17521 489.80334 775.20785
944.34550 349.65797 100.18813
483.27748 656.31676 561.10165
737.32462 718.03953 771.21515
886.80004 158.10208 942.98008
371.00365 187.74031 207.68589
837.67954 928.04519 0.16786
290.13793 636.53326 820.16606
908.57941 409.46291 137.52298
519.69349 548.94780 500.43656
854.67019 213.21083 925.96985
353.95568 934.31791 240.51531
596.08955 888.91679 264.97856
39.77792 796.87267 304.19785
537.11724 27.20404 862.99927
736.74773 327.32752 864.33492
653.81310 917.78858 303.70318
830.85372 906.92470 783.90149
50.39791 363.99776 939.18798
679.58074 966.03760 960.88004
973.76702 739.01464 148.16798
978.39567 936.11779 671.47699
29.15418 985.04372 332.27471
561.71025 832.36668 443.24750
703.07141 235.10958 281.88057
165.46653 156.70443 703.43516
218.69899 504.10890 910.35592
20.92957 487.14014 787.47784
343.16186 148.75122 692.19616
201.27749 201.00015 72.83709
50.76835 523.50299 725.62161
230.41946 270.07483 628.59667
508.26465 589.43426 663.28431
188.33042 822.55779 305.90999
791.72203 950.83336 181.09958
281.29477 905.83542 102.34693
46.87670 179.75273 997.76789
664.71989 819.44862 982.87320
588.24446 455.80413 398.21886
957.47550 813.68760 336.47850
375.34925 504.88733 962.16037
857.31752 881.75729 613.48455
455.69573 159.64099 943.18665
584.76868 794.86570 500.48186
535.42495 70.63222 294.67387
88.63217 209.36785 63.62872
476.35335 637.59304 307.94842
685.40509 767.56502 723.83298
737.03849 772.73936 362.76043
532.96195 193.17085 330.34600
460.61692 488.66311 639.21267
251.77101 668.62246 517.26469
184.03957 117.21555 84.35995
271.52315 679.66117 632.45534
842.75138 109.08365 825.04352
619.55592 791.84878 253.83484
979.10686 946.16690 137.04349
618.31112 447.07739 804.78282
463.66875 411.53160 986.14383
23.55852 797.75624 377.29094
672.58770 998.95532 6.13793
296.18409 472.71358 204.38445
85.64836 712.45306 390.99880
114.55664 84.49435 997.31516
911.11846 382.86523 905.29517
380.83235 102.43106 330.12732
565.91221 891.21043 633.16788
931.02422 253.70259 464.29757
617.39573 918.50415 123.34103
740.47918 159.73434 28.31207
626.17245 633.25392 939.62567
356.25916 147.37645 799.04326
886.50903 458.91452 838.83439
575.40398 487.98810 543.56054
547.21978 175.50986 909.83922
443.38310 500.86397 614.34118
0.68025 409.42563 84.16732
33.76876 913.37158 404.76384
537.20867 63.81037 424.14655
557.61582 414.15647 709.35970
19.68971 134.84918 401.14914
263.26627 643.85329 31.12834
952.27512 704.08101 506.28710
302.21431 193.99827 307.25413
290.89324 44.56895 227.67749
171.12869 861.14038 665.76354
878.40330 52.83960 653.58996
429.85473 646.25758 433.21817
15.59023 275.19907 43.18746
17.10494 961.91591 890.20729
919.36204 799.94738 905.34633
448.46106 536.12634 561.48823
978.27235 63.43655 27.59659
648.83449 259.48204 972.49356
286.37531 779.84916 919.83881
371.82316 329.64393 971.10395
689.69053 77.65204 237.78185
49.16742 790.48957 756.00819
212.87740 88.74125 282.25953
570.38415 268.89712 235.13526
349.79876 279.97683 63.32204
318.21711 874.13954 73.69362
897.35069 887.91031 51.72697
209.27853 739.72392 746.76713
260.46177 364.86743 979.12978
494.37339 816.90089 221.20980
656.17560 149.11788 900.54552
482.05050 679.41448 76.04646
84.84171 717.53306 407.22899
841.36349 563.10544 842.21460
861.25346 614.33472 489.31789
352.48802 539.97598 378.10756
222.47857 214.96000 237.43547
250.96673 669.80622 453.99341
101.92992 373.56940 124.02358
180.79495 968.69056 182.65989
586.08244 564.61661 986.02178
229.58067 259.62778 893.69681
884.56583 233.85245 407.48757
34.26153 94.83899 780.43336
403.24090 865.96424 113.39958
86.25970 79.54928 56.08538
755.59112 88.47842 241.78834
696.57497 301.52156 98.24037
955.49410 970.65236 359.16359
493.51161 640.41935 751.54092
900.46472 246.61190 997.52973
159.22688 208.03532 637.47123
744.15151 192.98862 520.69889
633.13947 382.32268 39.87937
358.88512 160.82625 716.72987
202.00410 819.19621 167.62102
817.85815 956.57777 242.46717
989.93810 49.33224 688.16591
586.48238 391.20838 130.48175
534.90206 200.71971 394.43331
440.77921 74.48018 714.26749
794.80742 832.48992 703.32671
875.13452 928.82193 881.78983
973.28252 632.80645 603.95122
335.84604 452.45964 994.49353
867.14865 800.60304 83.58130
188.82258 298.74559 296.13913
142.71188 24.33877 636.39986
988.82306 351.16459 261.08726
697.05726 426.65767 193.72241
583.16085 666.32849 956.16224
284.51485 81.32818 596.30998
578.73984 73.38294 764.68986
203.58213 489.31251 264.48710
172.17071 984.46693 754.36065
730.98816 856.20924 906.83914
168.12663 272.64421 985.40180
523.37170 760.61165 833.51626
193.54558 747.41223 584.81485
729.02170 948.73029 273.10525
721.62918 499.48413 884.97513
731.35979 755.24868 865.55377
518.25497 689.47152 779.21404
577.79325 562.81112 550.43124
406.33543 87.09089 607.06563
239.32258 190.92048 789.44899
686.52490 612.87790 316.90127
446.31106 143.94289 124.55877
613.27452 998.62661 258.92315
345.75634 109.55376 267.42545
843.79589 757.50593 194.33226
964.35743 776.96004 788.41556
87.16778 193.01305 57.61100
921.65303 291.57444 229.89759
862.34550 980.45952 256.27755
458.54327 347.98051 294.53190
442.21781 694.81567 104.99672
812.71174 754.62499 226.15279
344.80391 175.67548 852.16060
299.29466 797.21419 643.11711
947.13814 409.09409 462.70951
620.20213 820.21541 489.98715
584.98392 299.81511 511.23049
656.22062 484.25899 516.08357
379.63951 678.47373 427.05834
718.12445 962.01396 730.24124
665.01529 591.13007 119.32168
499.61373 557.21832 319.93321
358.23387 239.31420 711.73932
614.23654 824.90578 554.38594
165.74081 749.42994 357.09441
615.90348 439.37978 749.67566
682.63398 580.62730 802.05736
847.33784 642.34247 802.16976
155.01457 480.46255 560.84612
495.54808 491.87427 94.86674
660.84708 833.98977 749.08765
601.66808 965.87317 574.67175
696.21946 465.94947 264.84448
161.08216 884.34629 626.17805
559.44954 557.72875 681.51612
961.48265 483.56541 440.43765
737.24609 652.55147 491.27588
876.51014 18.13898 230.96317
725.42724 724.39112 548.68933
991.58313 187.85283 775.45961
205.31443 209.73060 657.57622
188.41458 23.74520 382.80528
133.09321 398.23552 90.68321
756.96694 544.73405 936.72589
35.93524 340.32697 201.06470
637.12384 802.19758 761.35648
366.83740 873.96126 676.54416
891.59307 833.51184 119.62970
794.62439 447.37686 58.85218
651.27005 609.54158 849.55291
746.55595 561.93020 108.87262
58.35125 548.40608 815.48432
648.49239 640.89823 30.73069
550.18957 624.98606 9.00258
999.00404 854.50481 494.93270
476.04083 633.90807 639.57531
232.00559 890.80696 828.20999
184.97637 647.93527 155.71575
922.28854 404.70028 120.14049
832.19359 805.30731 189.99530
614.56652 66.11003 136.52743
357.52881 680.39493 683.64440
433.29217 706.06832 659.22149
874.88934 739.50146 629.00822
653.31890 140.34668 715.98825
149.23436 644.61914 810.04056
486.86620 508.05026 750.49197
444.56532 232.97273 784.46479
187.02127 961.88884 600.62396
8.27766 550.41754 811.12884
843.84337 995.90493 539.26707
528.35600 2.20217 624.05663
963.56878 130.59045 497.88471
759.34521 195.15463 87.81228
732.64742 950.37194 21.53071
400.63547 557.09845 464.71394
946.19168 290.14839 682.27656
468.20521 230.74168 247.99762
515.50873 682.64659 324.91284
309.18339 503.33875 541.03537
479.23588 694.05513 101.96602
307.63781 342.46751 533.81371
486.03446 858.04009 219.73152
542.69379 182.73158 461.35097
551.48447 856.42952 818.17972
237.29148 593.79681 805.47174
1.79703 328.13689 695.04762
88.20466 26.80856 14.25236
837.37086 278.42701 443.00997
753.13142 535.63902 871.16407
816.95174 607.04268 437.89805
361.29558 659.20288 882.77150
835.65943 424.74396 892.21478
710.59140 974.51071 349.89929
649.42098 478.40988 349.31439
811.09818 476.44574 321.05522
156.67636 508.49088 163.17582
337.52590 10.30593 964.17728
999.72041 578.57328 955.29553
325.09994 955.30837 855.16321
750.73005 331.51278 428.32772
835.77257 198.00966 571.79232
911.20173 670.05455 312.91894
799.17840 824.81583 34.40304
773.85986 367.26171 660.40656
249.53478 459.04812 341.94976
853.74651 281.12927 168.58188
894.46446 956.66939 177.48405
726.09837 140.04986 861.80442
518.19334 687.21719 973.34393
427.56237 733.60105 531.43626
902.73171 307.43114 724.56419
537.76937 479.83183 512.97449
59.83664 156.54285 807.97417
148.85889 170.35407 876.25043
928.18712 648.04850 483.41409
979.38156 592.06665 319.77253
752.57295 14.91683 612.26354
847.60881 375.30887 398.92629
443.15530 387.69248 588.08619
725.83180 132.38367 115.02193
325.31131 415.41213 244.78374
618.32039 827.65253 79.53441
880.82482 898.61085 543.10928
423.82752 903.64304 437.01385
296.34201 681.65808 969.51813
650.70180 496.28400 810.81294
990.01606 868.94685 380.71036
894.69997 792.50862 635.28079
648.27302 210.07884 663.47505
750.45598 578.50012 69.62249
2.57182 892.71855 271.49040
988.71795 94.81888 358.00108
882.98597 818.95616 239.51096
493.19680 516.36824 89.89682
548.61175 343.66187 81.97972
159.11225 527.84923 466.84271
680.38469 763.53768 592.34316
271.51192 255.25995 573.09984
951.65581 753.37503 287.73824
600.48500 893.43213 285.39404
212.13986 333.78966 481.73887
471.97573 557.78803 55.51654
121.62996 84.99375 459.18892
261.53643 786.66225 397.78270
985.57631 967.88935 792.10310
318.10962 123.70236 386.84919
626.38136 630.20508 724.66305
798.51975 36.94407 388.05044
43.93098 193.40219 823.56902
807.98206 647.89131 606.87967
302.04302 20.25887 733.66239
889.85052 49.11881 714.51335
253.71843 935.83756 846.80159
491.06766 550.02770 837.77860
298.86053 953.39739 860.36718
305.98000 170.98696 117.41592
698.32129 489.73897 884.50859
503.54222 436.29416 925.47140
771.07643 310.98931 502.31994
658.95662 160.21014 819.33465
169.84825 828.92329 229.04317
758.00013 139.10578 39.45108
560.64941 536.19985 379.56564
619.27226 955.42730 164.46764
365.07540 740.47136 353.15946
89.74317 736.85096 145.69587
351.14250 340.69896 721.58149
250.59830 974.82002 509.26801
571.50102 112.14690 820.25475
105.18529 839.21495 872.47569
543.20283 769.43488 530.06685
456.53464 514.29837 764.53331
303.39472 726.51461 392.62708
719.23471 517.18620 824.29898
777.59782 670.41574 382.45911
389.16700 996.06246 176.25398
469.42387 947.21181 148.32919
510.30953 858.82647 817.31926
427.01099 208.53504 72.05940
418.84619 351.62390 958.30799
502.43942 635.58285 709.58515
803.42706 95.48564 570.62184
224.99046 66.06788 635.32636
546.82051 640.59995 318.20672
627.01819 568.25216 569.87850
131.01953 183.89644 498.22622
466.38642 716.97576 66.94806
54.12165 193.71523 50.53397
105.92990 684.64917 847.65385
42.39962 25.31343 639.62923
429.91991 225.01228 626.99785
749.39480 125.70654 716.38041
186.08009 306.51242 722.96519
505.71501 499.85435 187.63508
549.27498 75.38036 457.28968
565.84662 859.67361 460.74315
322.75871 166.43552 46.32718
112.07069 868.14748 132.24407
794.72831 987.34885 945.10306
17.64691 860.92792 209.26752
877.95448 970.96051 612.73575
425.57793 297.00815 804.20246
45.24027 177.32028 112.28081
742.47906 330.20147 706.00124
460.48257 982.41455 730.36603
904.72753 804.28730 102.66889
308.72906 223.95292 232.63751
703.99645 470.30949 814.71049
24.68772 817.50488 964.80511
969.52178 557.47082 383.95555
752.24213 385.53594 759.01003
179.01138 975.75860 129.53575
134.13136 833.01134 305.54042
28.48643 306.73177 985.15230
166.12192 100.44886 895.52438
761.74156 424.87045 638.93052
855.66517 259.44882 518.50658
83.59680 432.07961 858.91681
251.18848 29.66220 269.33369
668.78857 604.21634 447.67330
982.80729 438.18878 557.21202
444.97135 346.20406 526.14167
293.01979 689.58893 175.51186
814.07022 826.50710 704.93257
742.82816 281.21237 455.96095
445.32032 169.00176 193.63659
398.32073 791.64916 551.78444
86.93385 46.73507 592.34154
935.53385 404.25971 769.20514
709.58244 435.45735 278.62018
872.57451 393.38502 245.74427
820.99201 97.28665 116.46624
518.49292 528.74887 907.94208
640.36932 967.58070 695.97626
425.45127 299.91580 493.32441
910.41198 609.11712 974.61361
308.49389 342.15237 449.46975
273.37088 687.78262 231.08210
577.75112 853.77116 388.42192
688.71987 454.24638 229.52144
350.83490 522.62969 801.32721
610.87458 487.92233 447.43908
523.44209 310.08317 753.20142
312.53498 157.58549 835.74048
40.95194 512.78649 845.17505
469.48740 238.73608 768.08730
996.39128 646.28769 943.37180
742.72487 89.88057 716.36772
741.50468 130.84108 258.17830
215.26020 556.92061 654.24813
177.96407 179.25390 50.68950
704.33497 917.70873 454.12917
585.69455 254.70321 224.88485
733.31265 868.04095 588.82871
720.02367 551.94237 479.29380
980.37543 750.78980 679.53315
468.66638 877.98019 510.89445
288.85326 627.21262 521.22607
858.80502 452.70359 241.33125
661.58220 413.15478 364.22936
328.56399 147.53134 336.32028
879.07205 50.73098 507.28256
637.58118 321.27473 580.46604
3.91246 496.21081 923.52234
680.95695 206.41513 778.21448
714.57761 9.65454 761.63383
84.14897 450.18704 162.45477
659.55795 923.35503 119.67372
204.89124 461.77025 272.00171
884.58826 508.76680 513.31695
174.48571 143.16181 74.22279
513.58378 419.19480 934.16832
295.95411 829.11694 197.66124
180.42946 968.06360 568.63114
36.98467 528.60547 482.54717
447.75656 198.51084 835.57529
791.40925 999.36700 337.46203
605.37706 530.05497 835.94411
747.60373 75.39699 727.26504
558.15056 964.39657 304.11016
74.10974 625.19358 103.48377
39.89088 206.49129 873.29394
373.99275 756.91017 406.53745
317.25270 714.88795 272.10486
169.64666 240.52018 118.52869
621.80387 341.45340 281.45891
757.31912 461.92174 336.41428
634.51229 453.61444 908.28782
673.79404 21.58582 480.69168
423.54614 318.75775 393.36837
11.19277 292.50184 558.84453
333.27738 122.15158 161.60053
41.84665 609.87571 882.47683
41.00344 103.81560 34.60713
506.11409 593.56952 126.16631
186.72159 273.16980 248.80081
223.09172 327.43660 463.56308
396.35208 633.51287 587.36977
343.97096 193.55075 442.04204
5.38042 189.98430 936.36268
317.39365 15.07875 669.04038
168.77986 49.44260 332.91053
978.90096 58.24159 875.91965
73.86194 73.65779 470.69641
87.85373 108.51408 817.17075
917.79371 62.43459 922.01948
164.84396 812.84432 660.49927
753.17975 380.66987 71.61832
700.81698 287.82845 353.69683
547.19148 50.14746 394.49204
231.51057 122.27084 715.55949
832.48730 498.80030 723.64676
521.67101 776.67393 48.03680
789.69194 921.64393 255.22569
126.76310 851.78145 363.83353
261.07743 133.74613 394.19959
645.01228 402.02175 36.02708
32.11502 860.68637 175.32976
291.05249 14.72291 293.28671
2.33849 443.75515 640.63140
647.90987 719.69146 404.20399
475.64373 955.54664 315.20824
553.99698 801.99134 285.02263
802.15687 501.96761 993.55638
705.01486 980.67939 58.31833
963.19221 985.28387 940.49857
239.12327 605.91031 423.55292
492.96112 184.52557 664.71815
296.67987 639.07595 495.45303
808.57826 953.86456 856.60712
217.41295 428.69929 428.91552
275.62709 938.79600 691.85448
170.43683 312.92491 514.42977
620.06467 143.22549 880.65525
360.25197 946.46092 906.29852
17.92457 538.60025 338.88024
833.77170 297.82817 8.99185
378.57567 657.87037 16.96024
549.71202 544.05179 186.13223
15.08541 849.23641 229.56971
64.23979 175.74846 799.01148
777.15273 604.62549 868.02783
421.09575 546.66416 798.50650
365.42960 344.14573 882.49250
410.70649 340.91702 24.34095
776.18020 63.13285 688.56108
51.20244 111.30253 143.54835
486.87310 862.42010 762.42389
704.62074 647.10706 222.23943
958.36420 517.39692 160.49370
542.71146 743.42494 132.01367
779.77087 600.23286 443.13463
391.03735 402.46523 210.46336
216.08593 945.79339 99.45195
473.17700 114.12882 570.21797
91.80839 435.77905 886.03954
214.71308 50.29272 673.14674
696.82508 434.47550 841.91015
457.21061 915.17996 155.31782
381.41278 102.05393 988.87892
271.40682 564.08240 286.09531
613.10154 554.42349 180.68758
797.89100 635.14095 647.53496
329.51354 260.53778 875.87446
705.46224 896.05242 97.39314
242.64845 122.48509 657.25708
317.67408 387.83761 182.42943
494.03745 851.94292 931.88142
818.73074 791.67124 190.17305
834.82888 819.44914 521.84307
812.15667 958.76810 414.56230
188.34373 372.58582 593.38473
791.90656 277.55723 545.96272
944.60157 320.89050 710.77854
245.91911 335.43521 467.38611
466.26100 765.18586 134.33972
641.40535 920.11639 277.99969
934.79703 207.98382 603.40549
453.95002 183.26387 515.92072
850.15174 908.62167 536.82317
946.52224 735.61976 338.31899
892.17167 671.12661 226.39550
857.72786 672.44838 157.02843
883.49641 40.49945 307.71017
738.17841 495.97343 67.98510
111.68274 251.28292 411.55094
430.64892 684.48481 243.06786
119.89852 685.90979 568.36830
785.04044 435.05023 927.91394
223.00417 662.30913 886.42620
737.53700 984.30502 171.54188
749.88949 594.60131 268.16929
964.41241 32.50332 600.20563
510.04074 850.98594 851.86128
221.79980 877.58700 454.03653
329.16985 665.81352 773.32906
42.67680 402.21473 602.61984
894.34596 666.92963 993.34635
424.76494 230.65210 981.66106
204.86918 379.85809 120.54518
773.21950 336.51313 164.58962
121.29204 711.33344 664.48627
465.86247 311.40923 315.56919
969.23216 909.55985 918.24051
710.11401 881.85816 617.98098
932.80085 336.00250 779.02778
30.06094 334.15159 339.98266
716.08901 664.42144 864.72693
717.43860 666.08626 48.39426
438.99571 501.74821 216.90915
24.18315 889.50560 341.04729
87.77045 87.86446 850.85699
318.82512 588.78972 779.08170
246.17675 300.31199 297.13393
118.60848 876.16344 222.45362
411.39589 291.72513 114.87870
985.20840 582.07444 289.36639
462.84190 778.72725 292.54534
329.02167 576.16279 107.78782
282.81005 515.07569 419.32002
566.07679 904.66980 706.87987
331.62335 233.11697 647.85549
450.33684 652.58665 202.47459
493.49922 814.36583 46.82207
848.89381 224.77516 451.45862
572.26766 323.26048 326.03710
85.18685 314.67693 33.05923
578.59004 625.13860 370.92364
152.22855 876.66330 291.76735
624.71004 19.68342 765.39644
64.75789 678.47826 849.37783
431.79817 69.84465 652.48409
614.18805 947.64313 846.68791
749.21218 756.83024 920.07768
849.85117 745.07356 87.60115
358.11679 488.81418 635.28592
686.63408 75.37411 218.68904
118.98170 338.24865 481.93683
599.60039 406.03540 514.92615
616.89800 461.79259 375.28579
674.56644 381.54592 153.57146
713.76850 405.97829 881.84959
13.70735 545.64592 119.73727
430.44436 342.84163 965.79841
82.45986 302.47339 20.88690
199.51828 474.09663 944.31556
761.17632 596.49383 640.73336
101.31930 566.72565 63.62636
230.84135 505.67310 902.68990
617.38996 680.01633 786.06776
153.60889 267.31000 539.26154
568.83255 290.31865 800.53391
524.67062 144.70128 915.30717
680.65164 637.37895 714.45839
219.01247 39.34028 699.31923
466.96518 988.74455 446.16996
107.02569 590.70726 892.39658
907.94647 200.48088 825.66222
917.78413 366.69733 462.66445
161.21030 670.26593 38.37860
3.51764 791.05759 857.47251
434.66158 100.95044 721.74768
933.52838 36.23264 653.57077
622.48164 20.37059 33.24757
519.45138 146.36766 320.37112
65.58590 122.80853 14.44603
684.22530 181.56991 598.81314
225.77021 553.60942 419.88357
284.27964 429.38572 31.57144
965.95048 420.25275 250.67509
85.12494 159.78570 544.84725
757.68179 555.48269 703.27203
896.67266 444.17383 165.95593
154.95660 326.97302 413.54509
27.94444 855.24766 414.91964
983.26374 596.08161 187.35869
833.31502 522.81293 479.28609
980.12583 933.51673 973.21167
830.93471 393.28729 631.08253
406.47525 604.05925 14.39382
212.41381 46.89584 932.59625
802.28304 444.86730 984.86418
786.11185 558.70689 882.49719
584.25855 930.57605 715.93762
280.42159 336.29884 47.74027
327.62558 926.61938 151.06136
270.28767 485.85469 880.84548
705.61676 30.89787 863.51045
549.66775 293.49113 189.39918
587.63402 392.76363 734.75489
701.80693 515.52129 46.34091
945.89051 510.19985 170.10634
278.29905 270.56679 896.82918
953.11346 128.40952 113.35712
110.71338 348.95920 721.16923
859.26904 905.52267 415.64528
936.15493 52.11385 536.84764
369.15353 182.95030 397.07387
48.22349 231.02062 656.72203
483.91160 460.70393 641.35144
214.72760 949.25286 306.60251
823.32566 981.48116 600.99585
212.94320 139.44318 694.36424
308.96591 672.92649 124.84158
870.93605 112.82515 831.54671
439.84306 932.19356 911.81250
449.65382 974.79198 700.56536
245.14593 101.69735 50.17678
580.93934 647.03919 376.11665
698.50428 271.33560 682.51540
206.69021 280.53064 776.23802
528.59911 175.85087 366.29117
289.53660 270.79097 672.55420
45.14816 284.49110 443.28337
451.97438 884.29105 218.93632
866.48565 175.04121 663.77431
101.34080 884.54770 63.85093
474.37649 301.82441 645.78870
764.48815 477.43092 841.85167
14.00996 504.06104 492.71196
981.65660 885.68872 51.40229
443.26443 843.92862 327.80031
695.33924 479.81863 57.90965
169.22049 136.12780 790.17502
64.97243 109.93594 399.40354
886.25224 142.05236 826.65676
848.54803 443.60464 662.13711
431.23516 368.47215 115.49229
797.56369 37.13317 852.12772
590.20452 474.43893 191.02986
112.65877 494.02179 557.61558
413.93410 74.21935 680.05491
572.44715 850.70640 966.87028
456.23924 124.35559 983.07673
997.50764 537.55099 661.58081
578.50319 226.12763 754.43572
701.80536 210.60776 207.80283
188.38448 461.41315 944.67017
736.79677 815.47452 174.29495
697.79983 883.93932 340.49615
46.60378 661.02650 357.89592
599.19109 444.37464 997.57337
863.81780 901.46740 834.82423
953.83383 119.61101 5.68942
666.15464 321.44691 69.67500
469.38599 702.76988 432.61524
392.88895 998.57744 451.09435
339.84489 95.75434 990.01100
888.77866 345.50888 501.14243
693.79986 625.51437 30.06252
595.49885 65.53306 798.58864
31.62519 732.57205 372.02489
878.75138 815.54573 237.45488
856.42069 817.00165 418.64395
812.36718 273.85713 715.08592
210.39023 232.24449 347.29574
344.20701 229.02203 881.89972
410.61150 34.57969 442.04728
642.81806 111.05114 791.61318
826.23850 828.92832 211.78642
633.36861 786.75678 339.48240
927.88790 675.25350 320.34321
608.94294 924.88817 262.34517
124.75528 129.58765 128.40627
180.70237 620.90820 803.81664
398.27142 875.20592 603.55205
745.03204 368.38260 593.54722
878.29400 417.84428 419.15088
723.05867 159.24968 781.77464
922.41929 254.47089 397.52703
946.26844 455.98261 851.50470
183.67055 734.28752 728.40501
44.62010 745.61929 271.62204
34.51158 206.52083 4.46763
71.35633 351.62987 890.27149
386.69335 984.06144 920.57056
889.23292 949.68394 730.30755
474.12457 342.94156 345.55634
341.52439 113.47643 705.93776
662.61781 848.08656 366.94393
221.30127 902.91481 374.99290
447.10772 920.25370 830.70416
194.76762 84.16023 99.01552
140.94250 358.97436 165.96407
152.16629 790.82352 203.13208
430.65531 374.87510 989.77675
779.45991 131.34200 767.54337
143.15591 589.84315 659.73114
846.61912 869.19437 383.49627
360.41401 4.52190 969.85557
190.79187 588.89827 31.18517
698.52408 877.74806 665.06734
441.60121 805.21321 428.18342
444.18381 369.48576 103.44838
624.66070 567.32935 955.54611
722.75979 885.67475 131.83103
945.35272 333.73005 760.98325
913.00777 820.74701 925.36976
562.17667 18.86947 87.68678
752.91934 667.62554 178.45771
233.07872 590.30776 727.84419
644.28962 908.26701 666.56517
996.39563 108.39166 130.18657
549.95269 874.00014 156.81039
550.29103 287.71159 771.55755
399.33728 566.71166 460.74537
613.78951 285.29845 478.53481
990.90092 765.33249 561.33792
30.67343 155.57619 787.05007
665.19226 179.02997 52.93968
774.90346 997.97869 676.72662
577.32074 557.35468 699.15468
469.33178 588.24382 243.13181
269.01596 20.89329 125.59289
644.77238 86.63685 756.14846
38.77445 59.88645 181.03992
896.88039 364.69600 79.25328
46.18427 862.60837 566.82607
678.85437 879.83525 397.96465
251.46993 712.68867 625.33162
822.31309 23.42791 402.86965
470.13254 143.19185 459.80906
357.30298 173.12666 625.95228
469.47608 498.96693 617.74502
333.16005 74.37960 312.51711
778.53121 879.68598 701.77284
561.01525 778.04548 861.24779
413.14244 230.02980 795.11394
169.46695 767.81760 917.85634
819.25061 408.53283 783.40981
281.70381 35.64755 110.71848
707.07134 985.48627 799.64235
855.25373 124.04996 56.43624
368.60649 164.88273 226.53134
729.19574 943.61622 896.57763
711.47387 336.22474 383.22137
493.59182 882.97897 317.75817
227.35194 4.92860 717.11060
691.04854 520.59657 347.04141
691.55971 155.47429 971.68989
889.10910 179.75576 345.06626
301.51737 522.20141 368.03039
396.54660 177.89534 796.92605
5.77073 582.67638 570.58094
747.17385 839.54223 205.42497
784.13332 477.65512 58.65963
361.66763 630.46603 158.26185
904.77001 847.28915 61.50682
974.43779 639.55271 980.60681
777.92634 117.21357 129.57752
328.38280 586.64719 188.17415
330.00706 361.80143 239.10793
738.30513 803.21305 640.63507
492.37506 593.95794 172.31658
267.37041 188.14288 50.42238
901.60067 710.11538 945.97372
687.66412 685.06665 873.05980
974.13432 649.12728 492.02632
17.27712 345.16297 2.23704
219.38901 255.56769 999.53985
523.33672 886.12965 224.68075
896.40287 922.62101 523.28094
281.27604 589.44032 575.59558
462.05271 347.94632 209.21565
518.43866 257.72234 918.26847
207.95010 937.79859 243.11479
999.87309 276.07445 807.41440
642.59155 538.14404 639.85996
